# .PCD v0.7 - Point Cloud Data file format
VERSION 0.7
FIELDS x y z
SIZE 4 4 4
TYPE F F F
COUNT 1 1 1
WIDTH 1553
HEIGHT 1
VIEWPOINT 0 0 0 1 0 0 0
POINTS 1553
DATA ascii
22.783834 22.776951 0.041277289
23.034542 23.554371 -0.72702408
22.759186 22.753757 -0.42883003
22.799406 22.878101 0.19644678
22.815058 22.961218 0.3565965
22.73658 22.732656 -0.26892433
22.859232 23.154045 0.51696396
22.715857 22.718678 -0.26900536
22.833015 23.130327 0.51685393
22.70196 22.721371 -0.26404491
22.813643 23.123287 0.51678532
22.678537 22.693508 -0.2641505
22.797064 23.112104 0.51672137
22.663309 22.689264 -0.26420239
22.774893 23.109209 0.51664805
22.643917 22.68222 -0.25927123
22.761011 23.111908 0.5166086
22.621845 22.661299 -0.2593646
22.741737 23.08684 0.51652014
22.609314 22.670938 -0.25939193
22.716869 23.070065 0.51642233
22.603624 22.697258 -0.25937772
22.694796 23.049143 0.51632911
22.559742 22.60132 -0.24962781
22.676771 23.049044 0.51627272
22.549908 22.624842 -0.24963066
22.667036 23.054539 0.51625025
22.52512 22.590033 -0.24474865
22.640818 23.030821 0.51614004
22.507193 22.571907 -0.24482514
22.625589 23.026577 0.51608831
22.502869 22.605173 -0.24979867
22.604866 23.012598 0.5160073
22.484827 22.60507 -0.24485525
22.58684 23.012499 0.51595092
22.479155 22.631393 -0.249841
22.564768 22.991577 0.51585758
22.48159 22.699371 -0.25975293
22.550888 22.994276 0.51581818
22.474552 22.718748 -0.2597509
22.530165 22.980295 0.51573712
22.433367 22.636694 -0.24997683
22.513586 22.969112 0.5156731
22.380009 22.492157 -0.2303136
22.501055 22.97875 0.51564604
22.372889 22.529568 -0.23529164
22.478983 22.957829 0.51555264
22.361305 22.527952 -0.085327543
22.421865 22.755047 -0.73487389
22.355114 22.554102 0.064685807
22.35705 22.572815 -0.54529041
22.371969 22.680229 0.20988865
22.350861 22.598965 -0.39527711
22.384762 22.785528 0.36005461
22.322861 22.550098 -0.2354209
22.412472 22.949148 0.51533628
22.279129 22.447729 -0.67568135
22.293526 22.494297 -0.080577105
22.288687 22.527388 0.069448635
22.268875 22.453049 -0.52070493
22.301512 22.632698 0.20961474
22.281717 22.558365 -0.38553885
22.317001 22.751879 0.35980555
22.242828 22.471996 -0.22576147
22.343363 22.908556 0.51507509
22.297812 22.738419 -0.10027283
22.208719 22.382154 -0.66097575
22.243208 22.598551 -0.54561198
22.219576 22.486797 0.069186717
22.235083 22.605984 0.21437766
22.205732 22.501085 -0.37584242
22.249241 22.718229 0.35955644
22.210464 22.564749 -0.23575011
22.283695 22.916553 0.51490039
22.170309 22.453403 -0.071005337
22.144987 22.369324 -0.65618855
22.155945 22.455938 0.073954076
22.132538 22.360931 -0.651236
22.133871 22.435017 0.073860355
22.131777 22.414856 -0.51117313
22.154791 22.581974 0.214101
22.114698 22.403503 -0.36123845
22.171629 22.708096 0.36430463
22.107176 22.422716 -0.21623732
22.062044 22.313389 -0.64151073
22.075146 22.353029 -0.061418559
22.210049 22.945276 0.51470625
22.057219 22.334906 -0.061495338
22.176893 22.922909 0.51457793
22.038326 22.328032 -0.20656356
22.158867 22.922812 0.51452148
22.02183 22.298815 -0.20164815
22.151829 22.942188 0.51452386
22.002455 22.291777 -0.20171721
22.140646 22.958769 0.5145092
21.994068 22.304213 -0.20172752
22.119923 22.94479 0.51442808
21.985682 22.316648 -0.20173779
22.111439 22.975252 0.51443821
21.966307 22.30961 -0.20180692
22.096209 22.97101 0.51438642
21.949713 22.29842 -0.1968714
22.089071 23.008413 0.51440901
21.935831 22.301119 -0.19691111
21.929676 22.327278 -0.056897521
21.937038 22.355715 -0.64684427
28.655264 54.959763 1.4876817
21.952843 22.487963 0.21836796
21.912699 22.309479 -0.34197265
28.448141 54.801937 1.4818449
21.906055 22.335478 -0.056960791
21.918732 22.409714 -0.65183765
21.920931 22.49057 0.21827021
21.883585 22.30794 -0.34206593
28.208641 54.477516 1.4757053
21.943758 22.685881 -0.70643389
21.87974 22.32979 -0.057049148
21.89325 22.477934 0.22316949
21.861315 22.323076 -0.3421171
28.012306 54.375214 1.4699624
21.847832 22.332392 -0.057146676
21.962004 22.927332 -0.75109172
21.840326 22.351608 0.082853988
21.847574 22.398069 -0.50207245
21.80838 22.275473 -0.19233812
21.986872 23.186764 0.51430142
27.776024 54.475159 1.4693316
21.807716 22.311369 -0.052295547
21.912153 22.911804 -0.74626613
21.800112 22.348614 0.087725401
21.796553 22.339539 -0.49230042
21.797821 22.431656 0.22281644
21.764603 22.25182 -0.33250323
21.75565 22.282124 -0.19249466
21.939144 23.293287 0.51427698
27.412994 54.423252 1.4681189
21.856627 22.9226 -0.74642646
21.748144 22.30134 -0.052493945
21.741987 22.327499 0.087519228
21.737045 22.311472 -0.48251909
21.905495 23.361059 0.51425213
21.712837 22.247217 -0.1876685
27.72308 57.780846 1.5480375
21.706598 22.29141 -0.05263501
21.810837 22.927902 -0.74656355
21.688255 22.266665 -0.33272335
21.717428 22.425676 0.22255938
27.537323 57.770123 1.5474368
21.676121 22.282919 -0.047740463
21.784342 22.958275 -0.75161088
21.864511 23.502289 0.51429039
21.656061 22.233046 -0.1878624
28.198946 63.009083 4.9906969
21.654751 22.304842 0.087220117
21.652506 22.302698 -0.48279333
21.847343 23.599272 0.51435107
21.629745 22.227356 -0.18795082
27.985327 63.021778 4.9900336
21.644442 22.418509 0.082321882
21.626173 22.297005 -0.47788179
27.048321 57.68148 1.5407825
21.605562 22.253418 -0.047994848
21.712219 22.957882 -0.74683589
26.920931 57.396503 1.5350462
21.594477 22.251972 -0.048030552
21.698339 22.960583 -0.74687594
26.817535 57.367905 0.56967813
21.574301 22.220119 -0.18313229
27.777401 64.381195 8.5609922
26.714012 57.279972 0.56924742
21.559071 22.215878 -0.183185
27.658602 64.307053 8.5455294
27.524792 63.545799 1.6891661
21.551565 22.235094 -0.043184221
21.653816 22.990858 -0.75198007
27.23572 62.202354 4.9016967
21.646795 23.010241 -0.75697815
21.536335 22.230852 -0.043236993
26.9839 61.189365 0.57468402
21.520222 22.21983 -0.18330128
27.243654 63.671154 8.4334669
26.893177 61.297039 0.57452202
21.510485 22.225325 -0.18332455
27.107483 63.488781 8.3978214
27.293663 64.9701 1.720103
21.498419 22.235126 -0.32335141
26.986429 63.328674 8.3672514
21.583158 22.979385 -0.75221282
21.484072 22.237663 -0.18339249
27.174932 64.877937 1.7146196
26.786434 62.689388 4.9358454
21.481413 22.302519 0.091677837
21.489813 22.391979 -0.49319494
21.548618 22.950066 -0.74235541
21.459105 22.238916 -0.18346846
26.620144 62.127201 7.0646744
26.400759 60.560749 0.5721007
26.604513 62.961128 1.6655658
21.464359 22.381479 0.08671768
21.466097 22.418201 -0.49323782
26.468882 62.536655 6.0146694
21.455406 22.411781 0.22672659
21.429111 22.230595 -0.32357308
21.418343 22.253794 -0.043577597
21.441048 22.437487 -0.49829316
26.099901 60.550789 0.57113582
26.431324 63.103687 7.2002215
26.281666 62.77829 6.0393586
21.420115 22.357666 0.086551681
26.181082 62.721367 10.503985
26.16584 62.587955 8.2287836
26.016991 61.514145 0.57200253
21.397438 22.275877 -0.048616059
21.41608 22.43874 -0.49836895
26.165539 63.497398 7.2498422
26.050579 63.368031 9.4943247
21.404026 22.425373 0.22658288
26.048735 63.321045 11.784278
21.395844 22.492065 0.076634556
26.238155 65.265266 1.7221059
21.371778 22.3246 -0.33364132
25.773296 61.918907 8.1067543
25.668068 61.164162 0.57048631
21.355696 22.302 -0.048716258
25.825314 63.301727 10.618539
25.798494 63.033798 8.2931423
25.640467 61.761894 1.6311072
21.362766 22.451664 0.081483737
21.348078 22.350826 -0.3386842
21.420809 22.996538 -0.74769926
25.725368 63.459721 1.6733674
21.406845 23.017269 -0.75271863
21.342405 22.377151 -0.34366971
21.355547 22.507103 0.076526664
25.374811 61.154446 1.6145546
21.341764 22.491774 0.076466061
21.324461 22.359022 -0.3387475
21.388819 23.017174 -0.75277567
25.274944 61.159447 1.6142442
25.395163 63.126072 10.571972
21.308378 22.336422 -0.053822435
25.400534 63.265945 8.322155
25.647903 65.934616 1.7310212
21.286951 22.279602 -0.18895738
21.342112 22.817005 -0.55815506
25.286388 63.198544 6.0717001
21.300886 22.524672 0.22137778
21.284264 22.356031 -0.33887604
25.187883 63.116428 8.2963076
25.452951 66.080551 1.735577
21.268648 22.333595 -0.19395012
21.333292 23.027969 -0.75293553
24.972643 62.161789 1.6394628
21.256115 22.343235 -0.19397782
21.320858 23.019583 -0.75298339
21.24938 22.398842 -0.34393394
24.844831 61.777489 4.8286295
21.264639 22.560534 0.22130747
24.917068 63.651535 8.3760767
24.700014 61.424133 2.6777413
21.252106 22.570173 0.2212799
21.23415 22.3946 -0.34398666
21.276419 23.031826 -0.75310773
21.222015 22.410851 -0.059003491
24.649263 61.961731 1.6332047
24.74123 62.837955 7.1295595
24.510332 61.352749 4.7820735
21.225611 22.600546 0.21623281
21.209002 22.431913 -0.34902132
24.525768 62.692577 7.1087079
24.426067 61.702583 1.6221946
21.199648 22.444014 -0.059033673
24.545521 64.150101 9.6104765
21.229198 23.04822 -0.75823653
21.182203 22.426058 -0.20411044
24.441675 63.002583 6.0387974
24.651152 65.827881 0.57273465
24.421299 64.04924 5.0349536
21.189262 22.654436 0.21618333
21.175386 22.499697 -0.35904583
24.220522 62.883522 6.0179567
21.172487 22.679306 0.21615934
21.160238 22.477423 -0.35411912
21.145775 22.49798 -0.20913957
21.187635 23.038284 -0.7533769
24.116449 62.928005 0.56764537
24.322243 65.450691 7.4962997
24.007042 62.902447 0.56726849
21.13451 22.532595 -0.21413395
21.169609 23.038187 -0.75343394
21.136337 22.697142 0.21606879
21.122477 22.54241 -0.36416054
23.75177 62.083515 4.8455291
21.121508 22.7111 0.066037714
21.20965 24.096533 -0.76706582
21.099545 22.593437 -0.22417082
23.699903 63.026966 0.56644166
23.696316 64.247734 5.047893
21.180439 24.113016 -0.76713675
21.096361 22.748413 0.061003394
23.514513 63.203465 0.56606376
21.076736 22.716755 -0.23909758
23.479685 64.300629 5.052268
21.06975 22.796808 0.060977176
21.144468 24.09479 -0.76227069
23.297041 63.159294 0.5653227
21.056705 22.835922 -0.24901962
23.25934 64.278633 5.0465441
21.04892 23.047249 -0.7537998
21.03495 22.652557 -0.079301089
21.033974 22.911552 0.20600174
21.028011 22.852587 -0.40409052
23.084957 64.995697 1.6968125
21.016464 22.911636 0.050945684
21.076427 24.115231 -0.76745921
21.010071 23.051203 -0.75391501
20.998522 22.72448 -0.08432962
22.909187 63.59124 0.56460333
21.040276 24.133066 -0.76755178
20.988522 22.953094 0.045907136
22.702103 63.766357 1.6641595
20.970638 22.856268 -0.25426388
22.715963 66.211433 6.3971014
20.96921 23.097044 0.19601777
20.967279 23.07696 -0.43901598
20.953197 23.055058 -0.75408715
20.943806 22.850399 -0.099352889
22.512548 63.940052 1.6687658
22.400837 63.996181 0.56346977
20.932859 22.921251 -0.25930461
22.361515 65.646545 6.3253174
20.925644 23.206371 0.19100977
20.950586 24.042427 -0.75293821
22.245008 65.175858 6.2693977
20.917076 23.254868 0.18604104
20.935177 24.074245 -0.75794882
20.889479 23.042234 -0.75430149
22.127819 64.999046 5.1088119
20.8881 22.897257 -0.10447124
22.027233 65.371498 5.1389298
20.876974 23.004169 -0.26938134
21.937584 65.893883 8.7092819
21.915199 65.88932 1.7141584
20.858416 23.003885 -0.10943931
20.86027 23.05872 -0.75437319
21.75145 63.564137 0.56090879
20.845345 22.952682 -0.2645404
20.848202 23.997496 -0.74831033
21.704248 66.008644 -1.7513897
21.734756 66.185326 8.7589836
21.58246 64.415169 6.1764102
21.588274 65.912323 -1.74687
20.834318 24.000195 -0.74834985
21.472246 64.292542 6.1609182
21.480198 65.949226 -0.58716124
20.820736 24.377174 -0.61795008
20.785385 23.062487 -0.75960219
21.370754 65.793442 1.7123249
21.396942 66.096123 8.7428102
20.844509 27.499126 -0.78921795
21.244564 63.5466 4.9643159
20.819462 27.518412 -0.79427409
20.770138 23.058239 -0.75465465
21.144381 63.364403 4.9487858
20.765011 23.995663 -0.74857181
21.043161 63.362465 4.9484639
20.747065 23.977531 -0.74364913
20.936375 64.855034 1.6848528
20.727146 23.059395 -0.75478685
20.722389 27.519276 -0.79457718
20.730263 65.071968 7.4094925
20.698704 24.656693 -0.65800339
20.626175 71.373123 9.6115608
20.603348 68.127296 0.56262547
20.682722 23.071644 -0.75991076
20.662706 23.932697 -0.73896492
20.502037 65.159134 1.6938355
20.411968 66.810341 6.4555192
20.277023 70.596031 10.789536
20.53533 42.421791 -1.9027156
20.310194 63.983833 5.0018754
20.625332 24.63133 -0.65326244
20.143003 71.704628 9.6654234
20.623051 23.079645 -0.76008725
20.573298 27.659941 -0.80988002
20.548412 27.64316 -0.80497772
19.904192 70.790871 10.828583
19.991209 63.991802 5.0008755
20.527786 27.611151 -0.8050791
20.591143 23.082249 -0.76018405
19.852581 64.783707 -1.7036805
19.664125 70.592682 10.787591
19.775974 64.589722 6.1909041
20.534391 24.515724 -0.63868213
19.55242 70.292709 9.4318981
19.66217 63.988216 0.55480105
20.532639 23.875132 -0.72943741
19.488684 67.211563 5.3080592
20.426569 27.609221 -0.80539918
20.491932 24.131298 -0.58426392
19.317867 69.896446 6.8156753
19.338856 64.362366 1.6692251
20.476799 24.109028 -0.58433688
19.230993 64.307693 1.6688194
20.456059 24.095043 -0.57941884
20.318844 27.795877 -0.82551891
18.796902 71.481239 7.0058866
20.42568 24.068527 -0.57454395
20.406303 24.061489 -0.57461315
18.702616 70.547646 5.6194849
18.579113 70.560829 5.6241097
20.389627 24.068333 -0.57465708
18.463715 70.374397 5.6035256
20.373049 24.05715 -0.57472187
18.61235 64.089386 1.6616095
20.367868 23.824314 -0.72001082
18.24439 69.944939 1.8023057
20.34124 24.041725 -0.57483882
20.140837 27.898943 -0.84095585
18.128973 70.226974 5.5922971
17.700504 76.179398 10.407943
20.316504 23.837912 -0.72515529
18.253723 64.672554 0.55114985
17.832384 70.975815 1.8272104
20.340223 23.069813 -0.76097924
20.274809 24.015015 -0.57007706
17.520584 72.325768 5.7928314
20.306787 23.101536 -0.76604664
20.240202 24.003735 -0.57019854
19.973637 28.057543 -0.86129546
20.26659 23.098549 -0.76617438
17.235014 70.922646 1.8252603
20.199877 23.867804 -0.73048383
19.854078 28.664385 -0.93096149
16.81414 71.916893 7.0601287
19.806736 28.976192 -0.96574539
16.692196 71.90097 7.0597243
18.849794 41.75528 -1.8538129
20.204222 23.092667 -0.76637602
20.126732 23.957359 -0.5656063
20.118216 23.836851 -0.72577471
16.406197 72.431862 7.1244426
19.675129 29.225136 -0.99586737
16.157335 72.435699 9.8036776
20.144567 23.100676 -0.77155215
19.631622 29.057087 -0.9812004
15.928319 72.238945 9.7727232
20.115456 23.099133 -0.77164441
19.592422 28.855764 -0.9565587
15.633952 72.764206 9.8624086
20.086346 23.097591 -0.77173662
18.464058 41.105568 0.52422678
20.001186 23.830473 -0.55114615
15.503811 71.418884 7.0104027
19.990864 23.793175 -0.72122234
18.298658 41.069939 -1.7963514
20.039207 23.095951 -0.77188587
19.426031 29.129488 -0.99176133
15.002563 72.715378 7.1653366
19.942556 23.748533 -0.71642566
17.592537 46.335583 -1.5824159
19.927326 23.744291 -0.71647793
16.992289 51.35326 -1.1084363
19.901318 23.835485 -0.55145156
18.15815 39.811249 -1.6832663
19.965754 23.088627 -0.77212274
19.805708 24.380062 -0.63111567
16.74206 51.473949 -1.1190857
19.783176 24.449291 -0.6411047
18.015844 39.709236 -1.6738336
19.924208 23.078697 -0.77226311
19.224693 28.909267 -0.96765018
16.838747 48.754478 0.52804899
19.192705 28.929903 -0.97272682
16.534704 50.600006 0.52924722
19.154844 29.012917 -0.98274863
16.326601 51.633965 -1.130211
19.786175 23.685282 -0.70698667
19.677814 24.444567 -0.64143866
17.748842 39.318069 -1.6401334
19.832727 23.071276 -0.77255708
19.041014 29.038658 -0.98807544
19.626892 24.368011 -0.63168812
16.053682 51.323219 -1.1164359
16.27227 49.138317 0.52670872
17.609528 39.175858 -1.6307395
19.784142 23.080723 -0.77269769
17.566814 39.122925 -1.6259357
19.770359 23.065395 -0.77275854
17.531237 39.032589 -1.6211528
19.756477 23.068094 -0.77279836
18.873812 29.19726 -1.0084156
15.886017 49.813427 1.3112849
18.829012 29.281622 -1.0184586
15.906088 49.193668 1.2956239
18.801249 29.28702 -1.0185392
15.826943 49.212654 1.2953957
19.477556 24.562778 -0.66192657
15.596599 50.22049 0.52584177
18.81048 28.834927 -0.96903759
15.620874 49.523537 -1.0399077
19.57412 23.6689 -0.71266705
17.226654 38.670345 -1.5925368
19.648336 23.067524 -0.77813631
18.714397 28.914854 -0.9792459
15.38361 49.637356 1.3094919
18.67384 28.983986 -0.98929292
15.22962 50.129749 0.52457672
19.402468 24.325201 -0.62743813
15.237963 49.585716 -0.25603896
18.624086 28.95043 -0.98448783
18.592176 28.953032 -0.98458558
15.126027 49.800526 0.52386349
14.967915 50.334015 1.3239945
18.565781 28.965378 -0.98965329
15.000644 49.624653 -0.26174381
18.536667 28.963833 -0.98974669
14.990181 49.317665 1.2978758
15.721821 45.031525 -1.5148464
19.438658 23.583572 -0.70318896
19.426304 23.557152 -0.69825828
15.669484 44.966064 -1.5150878
15.665856 44.595745 -1.4855329
19.408278 23.557055 -0.69831496
14.818062 48.988037 -1.023069
19.205551 24.608482 -0.67272419
15.167483 46.636463 -0.91471589
19.200417 24.526625 -0.6628356
15.025125 47.071159 -0.93465614
19.17384 24.575031 -0.67286229
19.446083 23.027611 -0.77381176
16.670595 37.867111 -1.5302277
18.295025 29.036043 -1.0004209
14.004227 51.324455 1.347109
16.597795 37.733578 -1.5206133
19.421297 22.992804 -0.7689296
16.557777 37.694527 -1.5157847
19.400393 23.014885 -0.77396935
18.210583 29.009241 -1.000718
16.469273 37.646893 -1.5111197
19.368502 23.017494 -0.77906591
15.678003 41.650726 0.51607656
15.076489 44.342937 -1.4826881
19.26173 23.470284 -0.68887269
13.757482 50.529053 -0.28961268
19.002773 24.676752 -0.68827879
14.340257 47.308777 -0.95654178
19.236944 23.435476 -0.6839903
14.369527 46.822678 -0.20701316
18.952578 24.733353 -0.69837004
15.385337 41.664398 0.51516891
18.034384 29.029102 -1.0062481
18.009611 28.994299 -1.0063671
15.346332 41.584431 1.1149565
15.231952 41.820271 0.51486659
17.967787 29.038458 -1.0114475
15.232679 41.574104 1.114586
16.18347 37.140526 -1.4726126
19.250706 23.004387 -0.77944779
13.988586 46.944912 -0.94307858
18.710785 25.396427 -0.798356
17.871883 29.082323 -1.0166975
14.189953 45.743328 0.51616281
14.991918 41.845322 0.51413822
17.841341 29.091873 -1.0217823
15.426809 39.65382 0.51294965
17.816456 29.075092 -1.0168798
14.924471 41.637611 1.1186869
16.001638 36.909325 -1.4584551
19.171677 23.005358 -0.78469342
19.066614 23.392965 -0.68457097
13.811003 46.17981 -0.91453397
13.785872 46.024887 -0.19478865
18.600109 25.345907 -0.7937606
14.78599 41.490536 1.7180821
17.687231 29.132658 -1.0322186
14.701409 41.601734 1.1179413
18.605335 25.132339 -0.76399314
15.303699 38.834965 0.51160526
18.585958 25.125303 -0.76406205
19.087236 22.978559 -0.78498721
15.819553 36.454826 -1.4195607
14.689457 41.179359 2.8974218
17.502893 29.388252 -1.062501
15.031514 39.501186 -0.043479573
17.469637 29.383913 -1.0626112
14.75559 40.43441 3.411763
15.952791 35.402668 2.3446567
15.713497 36.316956 -1.4100561
19.040098 22.976921 -0.78513646
15.708756 36.162991 -1.4002502
19.026217 22.979622 -0.7851761
15.677208 36.093468 -1.3904313
19.013865 22.953201 -0.7802459
14.744046 39.578678 -0.044296011
17.411177 29.157536 -1.0430577
17.646036 28.16164 2.5115442
14.615355 39.860931 1.0756344
14.326043 40.947998 -1.2690251
18.882502 23.335125 -0.68521303
14.561276 39.860638 1.0754634
14.322929 40.746887 -1.2542696
18.870068 23.326738 -0.68526113
14.471789 39.993275 1.080336
17.330961 29.115496 -1.038359
17.578388 28.10997 2.5062718
14.95097 37.975277 -0.010515755
18.84663 23.298874 -0.6803661
14.984154 37.686699 2.5692692
14.409235 39.792511 -0.62510777
18.830051 23.287691 -0.68043149
14.367623 39.772224 1.0747494
15.475765 35.631939 -1.3566056
17.525047 27.983505 2.4909561
17.487797 28.018999 2.7908771
15.112277 36.812038 0.50863773
17.475832 28.050793 0.50586665
18.782913 23.286053 -0.68058026
17.457323 28.033737 1.9257983
17.44672 28.049248 0.50577295
17.453377 28.028448 -0.6242373
18.85158 22.970383 -0.79573268
18.088308 25.658028 -0.85500252
17.419325 28.056061 1.6407022
17.422785 28.032812 0.22567669
17.391357 28.074291 2.5106401
18.053436 25.700848 -0.86506402
17.415617 27.986349 0.78560293
17.401962 27.924606 2.4854963
18.724863 23.246916 -0.67581022
14.581196 37.822891 0.50813478
17.328386 28.097864 2.2254636
15.042704 36.053928 0.98252684
14.191999 39.000122 -1.1417338
17.339743 27.961353 2.7853386
15.016047 35.995205 2.4173803
14.298492 38.445305 -0.56704569
18.688725 23.264755 -0.68090445
14.746444 36.766865 2.99243
14.138477 38.807785 -0.5821321
18.680515 23.241131 -0.67595834
14.872223 36.163586 2.4371159
14.069751 38.870552 -0.037275825
16.908985 29.204786 -1.0645967
18.738012 22.942047 -0.7961275
15.145965 35.047672 -1.3133502
17.271717 27.903099 2.4850519
14.362747 37.699669 0.50728267
14.143278 38.275372 0.50725818
15.112901 35.007275 -1.3135049
18.728455 22.91148 -0.79119438
14.497449 36.9422 2.5168314
13.679807 39.62561 -1.1926459
18.647795 23.128611 -0.6611954
13.776814 39.106056 -1.1579502
18.643827 23.089754 -0.65625387
14.505015 36.734657 1.0015991
14.304316 37.246204 2.5465684
13.919723 38.479309 -0.57322913
18.625801 23.089657 -0.65631187
14.532771 36.344761 2.461235
13.868531 38.456844 -0.57342178
17.824959 25.637213 -0.86587292
18.652214 22.908304 -0.7964415
14.028012 37.793541 0.50631273
14.650485 35.815948 3.3709929
14.984041 34.715328 -1.2892673
14.407982 36.428459 1.485925
13.794095 38.370453 -0.56876469
17.779163 25.642513 -0.86601371
14.701954 35.349529 2.8356013
14.388309 36.311657 0.50571561
14.948914 34.534843 -1.2745954
18.631569 22.876293 -0.79154503
13.628664 38.529701 -1.1241145
18.531271 23.140476 -0.67155391
14.620329 35.437305 0.97042954
14.025629 37.173344 3.0605845
13.597562 38.479687 -0.034267131
16.383307 29.778931 -1.1456102
13.876093 37.477692 4.1554699
14.629133 35.123116 0.50508171
14.880625 34.331985 -1.2600571
18.496565 23.147224 -0.67165703
14.414638 35.6619 2.4000411
12.378808 41.759159 6.1907253
13.762236 37.642818 -1.0597361
14.253987 36.018982 3.4149532
14.368192 35.641174 0.97485703
14.824297 34.227661 -1.2503631
18.556761 22.862024 -0.79180104
14.268614 35.803688 1.4597313
13.667764 37.609787 -0.54007751
17.636583 25.594595 -0.86652845
13.570562 37.756386 0.50478917
18.529093 22.849394 -0.79190439
14.769239 34.148312 -1.2456347
14.29554 35.594116 2.8745787
13.812523 36.902401 2.5295701
13.412475 38.083447 -0.030336382
16.222973 29.676825 -1.1412482
18.527906 22.806387 -0.7819587
14.498029 34.703899 1.4091659
18.374271 23.203442 -0.68698281
13.886139 36.484058 -0.98071301
14.149585 35.61076 3.3641298
14.558105 34.394146 0.94898903
14.695276 33.971779 -1.2360837
18.55933 22.616531 -0.74708152
14.052168 35.743111 2.4189656
13.754944 36.595093 -0.49600178
17.548265 25.510908 -0.86191165
14.637503 33.87854 -1.2263815
18.538687 22.584518 -0.74218535
13.635427 36.792934 0.5038529
14.021216 35.699593 3.8688228
13.027014 38.44141 2.6888597
13.429729 37.256245 -0.53126776
17.519331 25.473303 -0.85704875
13.900054 35.780731 3.8885279
14.4793 34.099731 0.93838394
13.540789 36.763737 -1.011498
18.229185 23.38298 -0.72223598
14.737607 33.268467 2.5982428
18.521017 22.512302 -0.73232633
14.259025 34.601612 0.053262532
16.030828 29.559292 -1.1370078
11.978829 40.899132 1.1083789
13.654834 36.165218 -0.96684009
18.177652 23.432644 -0.7373426
13.26007 37.163601 3.0830963
13.373197 36.815086 0.50303054
14.528134 33.575611 -1.207095
13.396597 36.648064 4.5679297
13.688252 35.835407 2.4378986
15.950621 29.517256 -1.1373163
14.056956 34.784962 0.047826834
13.294769 36.802029 4.0777855
14.202239 34.275185 1.3927
13.109286 37.275311 -0.53728247
17.439661 25.323086 -0.84248221
13.345345 36.481144 -0.99746591
18.095722 23.455784 -0.74257845
14.283319 33.925323 0.93754333
13.528598 36.012215 3.4475985
13.525504 35.876915 2.9324241
12.533061 38.552299 0.50237709
14.439102 33.358768 -1.1876403
18.083286 23.447395 -0.74262792
13.477013 35.868328 2.9322567
13.021538 37.08345 -0.52779502
18.059668 23.455589 -0.74269444
12.532296 38.26173 -0.042974442
15.813713 29.44301 -1.1328464
14.455599 33.107964 2.172137
14.323835 33.34523 2.6219954
9.4804754 46.251682 0.50165093
14.381818 33.175396 -1.1780431
18.379606 22.507387 -0.73778522
14.213241 33.529556 2.2168543
13.341876 35.815422 -0.95326906
17.987312 23.5093 -0.75786316
13.64011 34.90834 0.50162721
18.315378 22.602758 -0.76287842
14.217109 33.383926 -1.1983286
13.660262 34.882084 2.8166769
13.062813 36.306206 2.4964335
13.41452 35.370869 0.026443709
15.705936 29.370314 -1.1332811
18.293125 22.617897 -0.76793206
13.988708 33.769264 1.371407
12.927523 36.507404 -0.50878507
17.237242 25.319233 -0.85313833
13.190693 35.729481 2.931165
11.571677 39.888077 0.50085211
14.107884 33.322315 -1.1987556
13.96272 33.621731 3.9961603
13.256196 35.435886 2.8960273
12.675105 36.911137 0.50088471
14.101399 33.233517 -1.188882
18.230572 22.648075 -0.7730974
15.600842 29.311497 -1.12869
18.211113 22.659071 -0.77814674
11.453021 39.879818 -0.08454635
12.661807 36.819828 2.5557463
12.237267 37.754597 -0.57453716
17.165407 25.264755 -0.84843415
13.484762 34.605465 1.4157704
14.16345 32.778618 2.5658028
12.585944 36.73037 0.50038022
13.996321 33.174702 -1.189292
18.167953 22.696293 -0.78824085
17.704357 23.812937 -0.82341403
12.816637 36.022007 -0.98472464
13.337224 34.728634 0.96043569
13.801566 33.475471 2.6554604
12.461152 36.784393 -0.0099630877
15.498641 29.230505 -1.1241167
18.133263 22.703047 -0.79334402
13.572978 33.924007 2.2702508
12.383537 36.840073 -0.53015196
17.110332 25.185402 -0.83870482
12.700351 35.932018 -0.48520574
17.082584 25.190804 -0.84378821
13.254623 34.588955 1.420005
13.732309 33.429657 3.5351872
13.580991 33.701115 3.1400177
12.482308 36.35339 0.99959886
12.768671 35.645905 -0.96032768
13.88967 32.842987 4.2950006
13.879025 32.769451 4.2798786
12.630262 35.860119 -0.97552156
12.409886 36.407074 1.0044281
13.881416 32.854202 3.0099826
13.848254 32.831833 3.0098484
12.291082 36.574219 1.0092422
12.663218 35.659203 -0.96565378
17.596289 23.794327 -0.82378352
13.812295 32.813614 3.0097103
13.999339 32.346165 0.49974361
16.774982 25.700949 -0.92417711
17.553308 23.795488 -0.82892072
13.742828 32.852959 -1.1704953
13.91137 32.476723 3.3746328
12.820905 35.055862 0.96915185
13.643257 33.019276 3.0444078
12.547762 35.588856 0.49889785
13.709666 32.830589 -1.1706294
17.525461 23.818918 -0.83398265
13.612974 32.986351 2.6142676
13.017724 34.367443 0.043964751
15.274879 29.061489 -1.1200403
13.523458 33.095741 3.4941132
16.697573 25.654768 -0.92448139
12.923052 34.465954 -0.42122838
12.023091 36.574909 1.5233766
13.581828 32.851166 3.0240085
12.046512 36.409248 1.0082524
13.660673 32.652809 -1.1609993
17.974104 22.643948 -0.79392463
17.974283 22.607887 -0.7889663
15.198899 29.004213 -1.1153543
13.281678 33.444019 2.2387357
12.099837 36.148663 -0.0018919996
13.353894 33.18512 2.2136619
12.62577 34.826305 -0.4417634
16.640888 25.622566 -0.92470211
13.476666 32.798763 3.4536076
13.363123 33.04528 0.92351663
11.906681 36.343006 -1.0322942
13.111422 33.530502 4.4932971
11.891823 36.266651 -1.0274328
17.426058 23.733786 -0.82940286
12.997131 33.775478 0.9431991
13.385955 32.900002 3.0434315
13.309258 32.980522 2.623276
11.825521 36.301884 0.49740365
13.647756 32.19783 -1.1215822
13.133836 33.285774 3.9930756
13.298579 32.906971 2.6181538
11.844429 36.139736 0.49727175
13.630005 32.143646 -1.1167043
17.388653 23.72665 -0.82953185
16.544102 25.569347 -0.92507726
17.887037 22.58523 -0.78927284
13.345534 32.703403 2.5930638
11.689912 36.36618 -0.52796638
12.114295 35.307545 -0.47285005
13.072124 33.13044 4.8676963
17.870457 22.574047 -0.78933996
14.59169 29.845436 1.1886945
13.33979 32.498787 0.90778989
12.328388 34.715706 -0.91286343
16.505428 25.537237 -0.92024046
12.327312 34.624989 -0.4429715
17.841343 22.572504 -0.78943491
16.484621 25.54129 -0.92530233
12.011983 35.330975 1.4718589
12.130071 35.087399 3.8819678
13.055665 32.947754 2.2024117
13.410905 32.159512 -0.31739089
16.468121 25.512074 -0.92039078
17.831703 22.559971 -0.78948045
17.820715 22.540497 -0.78953904
16.45154 25.500891 -0.9204573
13.379073 32.144081 -0.31251216
13.054821 32.850681 2.1972933
12.939154 32.993217 -0.35792896
12.98944 32.815262 4.8070517
13.118888 32.539753 3.8671381
13.042695 32.788219 2.1921797
13.965911 30.721214 2.3527153
11.237611 36.538597 0.49577695
13.429068 31.851316 -1.1027037
17.269791 23.652512 -0.83000171
12.207541 34.364693 0.96133864
17.777815 22.523626 -0.78969687
16.396303 25.457602 -0.92068708
12.442421 33.857853 -0.85851449
11.931283 34.96487 3.3911726
13.246503 32.075226 2.1219914
12.626442 33.37376 0.056512099
14.800744 28.771847 -1.1119195
12.700447 33.150257 4.0065084
13.367444 31.701199 -1.0930829
17.218601 23.630047 -0.83019334
13.759582 30.901722 2.3822608
13.517672 31.406092 0.49706411
13.49849 31.362997 0.49695066
13.372046 31.613846 -1.0831716
12.569646 33.218857 4.026165
13.695499 30.967457 2.7771342
13.858771 30.540369 2.3371527
13.43023 31.419483 0.49679649
13.348621 31.585983 -1.0832802
17.181198 23.622911 -0.83032244
12.749036 32.739624 0.92116022
17.171558 23.61038 -0.83036786
12.360918 33.531494 -0.83916813
14.197722 29.768087 2.5923352
13.534137 31.045601 2.7967033
12.516727 33.119709 0.93085855
12.37547 33.402599 -0.83427453
12.409645 33.274258 4.5057154
11.107193 35.821499 4.5845203
13.578934 30.799925 4.3165627
12.560619 32.944691 1.3607956
13.298766 31.454237 3.2614295
11.287961 35.540215 -0.50025648
13.629018 30.693012 2.3665891
13.443275 31.060381 0.49641135
13.253736 31.431526 -1.0737725
12.354636 33.194923 4.4954414
13.973447 29.93046 2.6268013
11.582759 34.745415 0.96976346
12.165244 33.56234 -0.84976637
16.230478 25.345758 -0.91635513
13.589503 30.612839 3.11637
16.220921 25.315191 -0.91142219
12.476915 32.820137 -0.36463639
14.113441 29.552999 1.1867963
13.587132 30.544886 3.1062815
14.028289 29.652378 1.1916384
11.075786 35.541843 -0.50594425
12.773304 32.09034 4.6754861
12.689178 32.255909 3.850405
12.538016 32.46806 4.3351698
13.122601 31.374821 0.49574471
12.230489 33.157604 2.6949859
13.22882 31.155401 -1.0541818
13.801948 29.952057 1.2062606
11.081171 35.310268 -0.49620354
13.44842 30.59123 4.2858906
12.64815 32.155853 3.8401523
13.708757 30.150398 3.0412066
13.490065 30.496738 2.3509042
11.381126 34.627022 0.49396309
13.151215 31.145271 -1.054446
13.636943 30.144934 3.7909684
11.821449 33.682533 1.4042742
12.644986 31.990845 3.8099451
12.473578 32.328518 4.7547975
12.355925 32.62394 -0.36026281
13.421936 30.566154 3.1207712
13.423643 30.470028 2.3506567
12.656232 31.958885 0.49492598
13.157638 30.974716 -1.039628
13.004795 31.214527 4.055191
13.897496 29.479712 1.1860087
17.550983 22.412851 -0.79055631
16.078438 25.249245 -0.91196126
12.715659 31.772678 3.3499157
12.347035 32.467175 -0.35047841
10.898615 35.178078 2.4730649
10.94629 35.069016 0.0030733796
14.396202 28.432653 -1.098634
11.98693 33.000706 4.039012
13.102874 30.841284 -1.034965
12.072979 32.745529 4.43399
11.039062 34.794342 0.49305046
11.074268 34.736111 2.9181113
12.906561 31.159506 3.2448044
13.605771 29.813698 1.2054588
10.90002 34.952873 -0.48721913
16.018959 25.221186 -0.91218692
17.503941 22.393185 -0.79073167
12.488005 31.79447 3.7942009
14.327181 28.374035 -1.0989276
12.629202 31.604536 2.1044264
12.326442 32.164223 0.079096146
13.165396 30.512972 2.3698692
10.782894 34.977386 0.49243534
13.035461 30.735512 -1.0253102
10.862203 34.751911 4.9324489
13.28385 30.225691 3.079917
13.368637 30.057848 1.2199801
10.737687 34.97002 -0.49272653
12.192852 32.181374 4.7537093
12.612477 31.395853 3.7141299
12.640491 31.335102 2.4841437
13.053524 30.499386 3.9144962
12.974632 30.700512 -1.0255494
12.019615 32.482391 0.49348047
12.694303 31.161095 3.2641163
12.793521 30.972694 1.2692014
10.562346 35.086952 -0.50315809
14.234718 28.287548 -1.0943308
16.859106 23.429796 -0.82658958
12.045449 32.285275 3.0433462
17.427879 22.353947 -0.79102224
15.915426 25.133261 -0.91262633
12.531836 31.380825 0.89383513
12.029073 32.288456 -0.77672857
11.821795 32.604012 2.2229936
11.952402 32.352188 0.068103783
14.217147 28.1973 -1.0844951
16.820272 23.433752 -0.83171004
15.876673 25.119183 -0.91276807
17.400213 22.341316 -0.79112631
11.84931 32.456684 -0.79211217
12.72185 30.875706 0.87885046
12.915716 30.531925 2.7690833
12.600673 31.012283 2.0586264
11.043105 33.825581 0.026903411
12.091988 31.87248 5.1430149
12.752792 30.676558 3.97873
12.613518 30.917624 1.2735505
13.056058 30.06035 3.4539783
11.876503 32.185143 4.792685
10.725897 34.316757 -0.46854514
13.030252 30.181299 3.0940397
11.706296 32.464043 0.49243933
12.991303 30.156939 -0.98114276
15.827011 25.067598 -0.90799028
17.362906 22.316153 -0.79127598
13.327596 29.566818 2.2642682
13.53518 29.127445 1.8644168
11.192915 33.299404 0.04176319
11.846558 32.074905 5.2174587
12.186134 31.470612 4.1828361
12.613378 30.694365 1.2632837
12.419383 30.976051 3.6630011
11.93416 31.831926 4.7124496
11.396568 32.839252 -0.39312676
12.14135 31.542099 3.3577733
10.918435 33.617645 2.8112674
10.55669 34.23978 0.49081752
12.85955 30.164555 -0.99156272
15.766182 25.0326 -0.90822929
17.318659 22.292339 -0.79144746
10.253632 34.694744 2.4603872
16.708433 23.340231 -0.82718194
11.015154 33.348366 0.03624266
14.237833 27.67454 -1.0300498
13.262483 29.34833 2.5987985
11.564235 32.314365 0.91680139
11.493126 32.421474 -0.80331385
13.043394 29.672533 4.1384792
12.050644 31.396885 3.7623041
12.905176 29.845505 4.9632411
15.720667 24.983812 -0.90343446
10.028905 34.897007 0.48988444
13.562555 28.754185 2.1640627
12.411345 30.686716 3.2176299
11.657533 31.985695 1.336715
10.754961 33.540283 -0.43437842
12.985377 29.633392 4.133244
9.2411871 36.082855 4.7887597
12.978664 29.574196 3.7481489
12.90328 29.705471 4.9280677
9.8927755 34.937866 0.48948944
12.648392 30.20645 2.3678229
12.908924 29.675373 1.2130289
8.5309334 37.160362 -0.63729817
14.256078 27.361195 -1.000363
12.582282 30.181107 3.5175817
13.639823 28.439039 2.7939429
11.061986 32.779545 2.7157333
11.381717 32.220974 0.49109262
12.836814 29.733105 -0.95715058
12.296759 30.603786 3.6121576
11.355593 32.17923 0.49095735
17.217728 22.236326 -0.79183829
15.637861 24.909864 -0.90379035
12.844241 29.605318 4.912756
10.937833 32.900879 2.7354736
13.501369 28.489407 1.8135464
11.301497 32.190556 0.060791917
12.659462 29.854301 4.60745
16.5938 23.250853 -0.82265842
11.196814 32.295715 0.92058241
12.602158 29.874805 3.4622805
12.912087 29.366783 4.0876875
12.530036 30.066673 2.7372735
11.983321 30.960976 -0.69846153
12.359486 30.27696 2.3869667
11.141369 32.300098 0.49040386
12.630935 29.769094 4.9822578
15.586769 24.869373 -0.90400398
17.176275 22.208368 -0.79200566
11.038307 32.392982 0.055176377
12.747437 29.496639 3.7623038
12.740681 29.553679 -0.94767779
13.503863 28.298069 1.7933259
13.136581 28.853584 2.8978007
11.473866 31.596415 1.3206515
10.648513 32.955849 -0.41542393
14.25241 26.990862 -0.96081543
16.535767 23.211712 -0.82289231
15.531516 24.826078 -0.89923495
17.147341 22.170763 -0.78714323
11.394613 31.63736 -0.75957161
9.6563158 34.507458 0.98320663
12.804838 29.329155 2.6272864
13.128235 28.738335 1.8476292
10.962637 32.281631 0.054796662
12.275104 30.083666 4.7114725
12.76679 29.280462 3.7171087
11.215921 31.804552 3.4700739
12.037739 30.456856 1.2661265
11.12825 31.922485 -0.36509627
14.221071 26.885292 -0.95604306
16.49711 23.179607 -0.82305503
12.987996 28.843483 2.5573027
12.075458 30.261473 3.5760274
11.898981 30.553434 4.4508076
11.558044 31.144518 -0.72462821
11.433543 31.363731 0.90023929
12.741686 29.183653 2.2569051
10.775021 32.34248 0.48926026
12.667176 29.286995 -0.92823523
12.470997 29.557486 3.8014767
11.822032 30.588799 1.2755811
16.451513 23.148851 -0.82323927
14.207923 26.743753 -0.94125456
11.839983 30.545052 -0.28942323
12.878318 28.896521 2.9220111
12.739773 29.068117 2.6017632
10.488917 32.656555 0.93370652
11.332603 31.30002 -0.74517655
11.904435 30.339949 4.4105697
12.522049 29.350256 3.3863928
12.705 29.050333 2.2466261
11.861785 30.391668 0.49047032
12.738074 28.985035 -0.90336472
15.412753 24.73391 -0.89972937
17.054718 22.120348 -0.79250181
12.742959 28.924791 1.8815973
9.6340761 33.840107 0.0073285904
11.655945 30.588985 4.9100604
12.046759 29.971054 3.9205892
8.4163151 35.599918 5.900497
12.443403 29.279106 3.3810515
12.022812 30.002377 3.1505468
11.738139 30.447374 0.88013619
11.463847 30.863867 -0.71527082
11.395808 30.903622 0.48956272
12.701322 28.851696 -0.89364409
15.354721 24.694765 -0.89996487
17.01182 22.103476 -0.79266042
12.09441 29.820688 2.3555577
15.343732 24.675291 -0.9000234
16.996588 22.099234 -0.7927146
12.668062 28.847353 -0.89375734
11.433885 30.778124 0.089534417
11.900126 30.057188 2.0102048
12.332935 29.317724 1.9307311
11.681687 30.323685 -0.28520355
11.970048 29.829618 4.6951752
12.10718 29.613682 3.8503582
16.977308 22.074167 -0.79280645
15.317594 24.633541 -0.89515805
11.276546 30.882267 -0.72085929
11.580514 30.433899 3.2496219
11.466919 30.590115 0.88442236
12.800975 28.48139 1.8412567
9.4228668 33.661449 0.0064249206
11.870007 29.852621 4.7148762
11.930112 29.759657 3.8949559
14.250962 26.187826 -0.88177633
16.2939 23.060635 -0.82385463
11.239628 30.791428 -0.31608623
11.806266 29.9328 1.2497448
11.503005 30.405741 3.2493348
12.481632 28.851763 2.5956635
9.9296246 32.725605 0.94196373
11.344761 30.566433 -0.70101488
15.263706 24.597195 -0.89537615
16.931614 22.061441 -0.79296935
11.44125 30.304573 4.0490141
11.149929 30.748341 5.0136013
11.191428 30.735197 0.088692196
11.811406 29.804331 1.9946131
11.69405 29.911386 1.2493534
11.886272 29.632795 3.1096594
16.255245 23.02853 -0.82401758
11.353949 30.41622 -0.30116212
14.26423 26.033951 -0.86691594
9.3449917 33.368629 0.96082556
11.452107 30.192558 -0.67611235
15.212615 24.556702 -0.89559025
16.911068 22.0114 -0.7880947
10.685842 31.368132 3.0278194
11.981752 29.364321 1.9496424
11.080663 30.696262 -0.31671849
10.927114 30.881565 5.0730343
11.596414 29.878403 3.9590101
12.314214 28.811569 2.960072
11.062955 30.661404 0.88818997
11.241703 30.388357 -0.69656408
15.179454 24.534332 -0.8957243
16.869438 22.019503 -0.79321986
12.465089 28.46768 3.6051538
12.595979 28.310242 -0.8596341
11.497107 29.948189 2.0237598
2.3700602 43.438896 -0.28488797
11.746781 29.526638 3.1090772
11.382596 30.051119 1.2635045
8.7533674 33.914974 -0.50546134
7.554647 35.615868 6.0077014
12.661199 28.117039 3.1753709
10.659898 30.997353 5.5823035
12.05273 28.95525 3.3693905
10.910709 30.622736 4.5926676
11.396759 29.963396 0.48844066
11.311878 30.09506 2.4333341
11.172397 30.230177 2.4530404
5.0129924 39.203304 0.47866869
11.160254 30.194698 5.312974
10.843961 30.650095 4.6024818
11.820808 29.227093 3.4389591
11.545464 29.572186 3.5184743
9.3717575 32.721478 5.2051606
10.490243 31.155237 0.48690912
11.772848 29.296154 2.3238811
10.774176 30.694384 5.4923139
12.152237 28.689529 2.2443926
4.8967299 39.161068 0.47823757
11.767275 29.198557 4.9787602
7.1089206 35.900345 6.1265864
11.890083 29.00841 3.3989232
11.755068 29.154125 4.9686675
12.657209 27.854963 3.1350448
10.534463 30.893751 4.6917634
4.9784055 38.932697 0.47822994
12.284067 28.44067 2.2095249
12.36272 28.270552 2.1895778
5.0544906 38.712612 0.47821382
11.065658 30.112806 -0.68746918
12.028259 28.69216 4.0640001
10.912762 30.285471 3.697264
5.1794567 38.429005 0.47828141
16.777075 21.914993 -0.78864211
15.107185 24.292618 -0.87124681
12.652582 27.796549 2.1249557
11.376491 29.562344 5.1279206
10.668261 30.558008 0.89177698
11.121996 29.873709 5.662467
14.232299 25.499815 -0.81765634
16.075735 22.883331 -0.81977195
12.495477 27.90473 -0.83544677
10.927917 30.072914 4.0720611
8.1508846 34.039295 -0.52728188
10.878299 30.193058 0.8820253
10.547021 30.671293 2.9565301
11.611902 29.109921 3.0631375
5.1880527 38.122429 1.7229489
11.118567 29.751167 6.0573115
14.17833 25.481501 -0.8228547
16.049515 22.859615 -0.81988513
16.032934 22.848433 -0.81995249
14.149216 25.479956 -0.82295144
10.659617 30.365208 0.88651699
8.2412109 33.744392 -0.51734114
10.914253 30.020256 2.8519485
10.964945 29.891586 2.8319597
16.72327 21.860613 -0.78388065
15.150008 24.050133 -0.84139574
10.950359 29.890289 -0.68311286
9.5168629 31.891848 0.48461151
10.823955 30.024897 2.0616541
10.509301 30.44997 0.0811226
10.929715 29.858274 -0.67821854
15.152985 24.009926 -0.83643389
16.722019 21.835646 -0.78391433
11.032646 29.67107 2.0219111
10.453771 30.460762 0.080953993
12.443771 27.713057 -0.82084471
15.161551 23.961432 -0.83146375
16.701195 21.839693 -0.78397691
16.694351 21.823015 -0.78401893
15.153343 23.937805 -0.82651854
10.18172 30.765766 0.07043051
12.428183 27.693104 1.7990977
12.406384 27.705925 -0.82597578
12.741632 27.210897 1.7445433
10.140169 30.755833 0.07028269
10.915349 29.691778 -0.67346525
11.399276 28.997791 4.2073131
11.315146 29.10918 3.4721668
10.785499 29.766949 5.2712359
11.230255 29.154463 3.4869435
11.528409 28.753119 4.1424408
9.9226217 30.977404 0.48483965
10.737443 29.88249 2.4512024
10.563041 30.060402 2.4758463
10.184208 30.562799 0.48519745
10.924391 29.553139 -0.66360217
14.079483 25.288187 -0.80840701
15.920935 22.790974 -0.82538456
11.749916 28.347193 3.6726751
10.593184 29.902239 4.9157672
10.637866 29.848768 5.7408552
10.97026 29.454842 2.7814529
10.208299 30.470898 0.89516872
9.7168245 31.062593 1.3392748
9.9712257 30.713825 -0.35032326
12.346306 27.526693 -0.81638646
15.095589 23.844574 -0.82181728
16.646139 21.760345 -0.77924931
10.893821 29.494146 3.1812525
12.255731 27.560699 3.8183856
12.203474 27.633347 3.1532979
10.584163 29.787985 5.3106027
9.982749 30.631552 0.069618143
12.218952 27.654505 1.8083677
10.504379 29.888132 2.4654472
9.9202404 30.650112 0.4844386
10.20109 30.235842 5.9198923
14.018949 25.199104 -0.80871117
15.892197 22.717316 -0.82056493
16.572533 21.789087 -0.79445392
15.093349 23.740543 -0.81194848
7.8119316 33.370392 -0.51419652
10.162251 30.270958 0.8897776
11.385487 28.661251 2.656857
12.35408 27.363081 -0.80155718
11.934723 27.878962 1.8377084
9.8622446 30.604544 0.069191799
10.86064 29.280968 -0.64913732
11.644046 28.215818 4.027174
12.243521 27.431139 3.1181867
11.065213 28.961723 0.48615602
11.926693 27.790819 3.5525849
10.912978 29.116558 4.7008686
10.284807 29.942411 5.8298125
11.725583 28.106167 2.2172999
11.140566 28.816107 3.0712447
9.8391848 30.505802 1.3190055
9.844841 30.489861 -0.34600616
12.307411 27.271294 -0.79681981
15.106421 23.622723 -0.79704607
11.081572 28.77784 4.6010122
12.285263 27.224371 3.4130766
11.270117 28.581978 1.2063748
10.579653 29.471748 -0.28982499
11.00531 28.935986 3.0959461
11.269845 28.535358 3.0213301
12.156915 27.34289 3.4477999
11.333608 28.404928 4.4863887
6.1253495 35.178032 1.5874698
7.7204504 33.103622 -0.50981772
11.875435 27.701262 2.8523083
7.2098517 33.696045 1.5042367
7.6622214 33.100533 -0.51001227
11.258437 28.444708 4.5061908
12.225782 27.196312 3.4128485
11.566848 28.042019 2.9267082
7.0077171 33.879368 1.5187954
6.6504359 34.278286 8.1781445
12.242813 27.161383 -0.79216248
15.048487 23.565552 -0.7973029
16.513414 21.688911 -0.78476453
15.77072 22.611259 -0.81608611
13.874244 25.029129 -0.80438644
2.064934 40.090855 -0.22992657
12.189707 27.188433 1.7727131
10.61292 29.192263 -0.6600545
10.19908 29.670124 2.464186
9.9656143 29.956972 0.48375353
10.663511 29.063557 -0.6500439
11.887156 27.48098 3.8520856
12.166268 27.125673 3.0775669
11.099076 28.42808 4.9106517
12.190331 27.045391 3.0625491
12.004875 27.288927 3.7972403
10.15585 29.657082 0.48401567
10.369859 29.399292 2.4294193
11.025549 28.508564 2.3004935
6.3720732 34.354229 0.47727728
12.192196 27.030745 -0.78748471
15.014255 23.482155 -0.79251367
16.460876 21.659504 -0.78496987
16.456829 21.638681 -0.78500777
15.006045 23.45853 -0.78756863
10.386812 29.24556 0.099274196
12.181306 26.993242 -0.78756559
9.8968906 29.870008 2.0984344
11.488381 27.82518 1.8611842
6.2463155 34.347267 -0.058147099
12.156434 26.976465 -0.78766704
15.029943 23.39625 -0.78256488
16.456911 21.620649 -0.78002846
10.655709 28.749571 4.2645822
12.261381 26.761549 3.0124407
10.093643 29.451065 5.3185925
10.112438 29.464565 0.093638852
9.5512114 30.167614 2.1376603
11.616362 27.56201 2.1712885
5.590548 35.003132 0.47549757
10.175094 29.294867 5.268671
10.611232 28.761797 4.2744517
11.949947 27.10643 3.1018364
12.07043 26.910223 3.0569947
11.437727 27.690569 3.9558675
9.979701 29.476761 5.3432503
9.0936146 30.619364 2.6317089
10.678558 28.658684 0.48452598
6.9384675 33.194832 3.0177519
10.868548 28.370331 0.12479888
10.300231 29.029385 5.1887608
15.036173 23.261751 -0.7677049
16.397449 21.592598 -0.78525537
12.156295 26.735144 -0.76795733
16.382217 21.588356 -0.78530985
15.03076 23.23398 -0.76275581
10.684608 28.535748 0.11939527
10.466053 28.812366 1.9890248
10.013857 29.303514 2.048135
10.401568 28.821276 0.10881156
12.163513 26.679707 -0.76300031
15.026713 23.213158 -0.76279348
16.348877 21.602049 -0.79040229
16.372677 21.557796 -0.78537661
15.031038 23.179893 -0.75781882
5.841722 34.285431 -0.064549014
11.104962 27.928444 1.8900529
12.151176 26.65329 -0.76307219
11.987917 26.81708 1.7566071
5.7849407 34.271255 -0.064752661
12.123508 26.640659 -0.76317793
10.477614 28.586824 3.8738008
13.747231 24.653984 -0.78024977
15.74199 22.26021 -0.77659661
5.9419646 33.951195 8.2354259
5.8915892 34.067368 1.5503614
11.271002 27.631329 2.9002459
11.593781 27.191236 2.4757707
5.8031383 34.085575 1.0150892
9.5486002 29.614553 -0.32803109
13.719564 24.641352 -0.78035587
15.743519 22.231091 -0.77162623
10.500449 28.428877 -0.62134176
9.2853537 29.827097 3.8113863
13.700188 24.634314 -0.78042722
10.757903 28.127537 0.84414858
11.574503 27.16617 2.4756775
11.131764 27.645285 2.2148023
9.5478334 29.512308 0.48184898
10.033227 28.897539 5.207727
10.929015 27.836039 4.0593767
10.761031 28.035666 3.3740625
8.535181 30.595676 5.8498664
10.308717 28.508703 3.4981503
11.587509 27.013426 3.8105426
10.141377 28.748665 0.48287392
10.891849 27.875515 2.2542934
10.554214 28.214748 2.3085957
-2.5283692 43.524887 0.45914799
10.424585 28.353577 -0.62168139
9.6999207 29.172577 4.4869614
10.388655 28.363565 3.4682372
8.9975996 29.922533 3.8605578
10.51354 28.165052 4.1834121
6.1554422 33.239105 8.5902672
10.029413 28.777576 2.3975542
5.4149199 34.095211 7.1888633
9.9096193 28.865656 2.4122679
2.9004519 36.988159 0.46906564
5.7885604 33.587139 7.0094743
9.707633 29.045063 4.461832
8.9588451 29.908453 3.8604138
10.57662 28.022985 0.48342592
9.0262327 29.772947 3.8354712
9.6660662 29.035122 4.4666839
9.8420715 28.840986 5.2320323
10.453167 28.176746 2.3132188
6.8647628 32.258438 2.9413776
9.9516563 28.699091 0.48219222
12.037964 26.293478 -0.74387515
8.523612 30.290909 4.4144511
9.9293718 28.621166 3.9520445
9.7840757 28.79542 4.8167839
10.530066 27.980234 1.2032267
11.29344 27.115648 2.8346982
5.7609105 33.388668 8.1341505
11.399908 26.940153 2.7998354
10.333411 28.148787 0.84778249
7.2720699 31.631144 -0.47306666
9.4435091 29.120682 4.9410601
10.558325 27.85104 3.7431774
15.802097 21.884663 -0.72184676
13.594694 24.388264 -0.76606733
9.8575239 28.628799 -0.28320703
3.7040648 35.619537 1.6700552
10.929501 27.431131 2.9138858
11.161405 27.116722 2.5042644
9.4700804 29.019579 0.48099869
11.079073 27.171865 4.6390724
11.159773 27.074778 3.8892148
10.072736 28.295231 3.4971187
10.96595 27.292158 2.1938331
9.2638388 29.193684 0.080529414
11.952658 26.16959 -0.74430388
15.777226 21.867887 -0.72194749
16.196163 21.3724 -0.78117096
15.134004 22.561872 -0.68321967
9.3283587 29.068729 0.48059297
10.657887 27.58535 2.6031785
11.933379 26.144524 -0.7443974
7.0053792 31.597406 0.95102566
10.208652 28.020954 -0.617791
11.561539 26.489189 3.7198255
10.080642 28.131666 3.471947
10.951438 27.161734 2.1836281
9.3875246 28.885094 0.09056247
11.954759 26.032301 -0.73446256
15.124544 22.513279 -0.67830878
16.168497 21.35977 -0.78127599
10.146098 27.999399 1.9469948
10.547821 27.518215 3.6927414
11.196314 26.804186 4.1840105
8.965106 29.299347 -0.33532631
6.2678471 32.224728 3.9993823
9.9339848 28.175255 1.2265059
8.9612541 29.24247 -0.33540797
10.950753 27.024622 4.2684712
10.592839 27.415871 3.6677649
9.8965797 28.168116 1.2263749
11.221578 26.681795 3.4639413
11.887087 25.980621 -0.73474658
6.0772142 32.304958 7.7888741
6.1202374 32.318184 4.0290103
10.993505 26.92539 2.8434849
9.8103733 28.206469 1.231138
6.9073939 31.367048 -0.47458479
10.739009 27.159286 4.3329391
10.976068 26.90225 3.5334017
10.269152 27.667307 3.0120044
9.8469362 28.116533 1.2261493
6.9049897 31.299084 -0.47467533
10.391501 27.485897 4.4571934
10.920505 26.913027 3.5432324
